ply
format ascii 1.0
element vertex 798
property double x
property double y
property double z
end_header
345.319976806640625 825.933593750000000 113.282608032226562
346.428222656250000 826.972656250000000 113.261138916015625
346.705261230468750 826.983886718750000 113.255767822265625
354.159790039062500 755.243652343750000 113.609909057617188
353.883911132812500 755.255859375000000 113.586059570312500
359.146972656250000 755.417968750000000 113.543197631835938
356.222900390625000 755.696289062500000 113.559936523437500
356.482238769531250 755.723632812500000 113.613159179687500
356.738922119140625 755.787597656250000 113.721481323242188
354.710418701171875 756.190917968750000 113.686660766601562
355.265869140625000 756.236328125000000 113.646850585937500
355.816375732421875 756.188476562500000 113.723617553710938
353.610565185546875 756.310058593750000 113.503952026367188
355.544219970703125 756.270507812500000 113.612335205078125
356.102203369140625 756.362304687500000 113.514190673828125
356.931060791015625 756.348632812500000 113.556533813476562
357.203186035156250 756.266601562500000 113.667892456054688
358.035888671875000 756.323242187500000 113.622680664062500
358.591461181640625 756.368164062500000 113.582855224609375
358.863464355468750 756.286132812500000 113.694198608398438
359.148345947265625 756.436523437500000 113.513977050781250
358.055389404296875 756.645507812500000 113.575912475585938
358.310668945312500 756.728027343750000 113.711685180664062
360.144592285156250 756.664550781250000 113.699783325195312
360.937561035156250 756.545410156250000 113.557250976562500
356.646545410156250 757.193359375000000 113.736831665039062
356.379394531250000 757.368652343750000 113.508865356445312
358.862274169921875 757.258300781250000 113.723297119140625
343.916015625000000 821.768554687500000 113.600891113281250
344.704833984375000 822.682617187500000 113.514556884765625
346.529388427734375 822.748535156250000 113.697280883789062
343.912628173828125 822.818359375000000 113.683181762695312
345.482177734375000 822.783691406250000 113.702728271484375
341.433593750000000 823.603515625000000 113.590942382812500
346.275756835937500 823.624511718750000 113.506423950195312
346.534088134765625 823.670410156250000 113.587524414062500
346.799438476562500 823.606933593750000 113.503814697265625
347.057739257812500 823.652832031250000 113.584671020507812
347.323089599609375 823.588867187500000 113.500961303710938
347.575469970703125 823.726074218750000 113.719207763671875
348.101501464843750 823.671875000000000 113.661499023437500
348.359741210937500 823.717773437500000 113.742355346679688
348.625152587890625 823.653808593750000 113.658645629882812
341.710662841796875 824.609375000000000 113.585540771484375
341.982421875000000 824.504394531250000 113.726013183593750
342.260375976562500 824.538574218750000 113.691436767578125
348.893066406250000 824.548339843750000 113.520065307617188
349.410705566406250 824.622070312500000 113.654403686523438
349.668945312500000 824.667480468750000 113.735275268554688
345.581848144531250 825.619140625000000 113.685409545898438
350.463104248046875 825.508300781250000 113.538742065429688
346.969085693359375 826.715820312500000 113.600341796875000
353.874328613281250 756.064941406250000 113.819213867187500
354.151428222656250 756.076171875000000 113.813919067382812
354.427246093750000 756.063476562500000 113.837707519531250
354.980163574218750 756.062500000000000 113.856185913085938
357.781433105468750 756.818847656250000 113.824707031250000
355.812744140625000 757.113769531250000 113.811065673828125
356.089843750000000 757.125000000000000 113.805801391601562
358.024536132812500 757.108886718750000 113.885101318359375
358.302917480468750 757.143066406250000 113.850555419921875
358.577453613281250 757.107421875000000 113.903579711914062
360.922363281250000 757.741699218750000 113.859481811523438
361.184387207031250 757.732421875000000 113.857650756835938
356.359558105468750 757.991210937500000 113.975234985351562
344.948242187500000 822.965820312500000 113.952438354492188
345.209991455078125 822.957031250000000 113.951019287109375
345.739288330078125 822.848144531250000 113.811248779296875
345.996429443359375 822.912109375000000 113.919509887695312
346.782928466796875 822.867187500000000 113.888076782226562
347.832489013671875 823.790527343750000 113.827728271484375
342.529022216796875 824.363769531250000 113.919235229492188
349.921020507812500 824.804687500000000 113.953491210937500
345.848999023437500 825.420898437500000 113.942428588867188
350.711425781250000 825.700195312500000 113.839309692382812
354.134521484375000 756.745605468750000 114.221862792968750
354.410339355468750 756.733398437500000 114.245727539062500
353.859954833984375 756.780761718750000 114.169006347656250
354.693420410156250 756.860351562500000 114.094665527343750
355.525817871093750 756.916992187500000 114.049591064453125
356.947448730468750 756.949707031250000 114.051528930664062
357.188140869140625 756.982910156250000 114.017593383789062
357.462738037109375 756.947265625000000 114.070617675781250
357.739807128906250 756.958496093750000 114.065216064453125
355.937377929687500 757.028320312500000 114.055786132812500
356.713867187500000 757.128906250000000 114.243026733398438
357.245574951171875 757.001464843750000 114.075027465820312
357.499511718750000 757.102050781250000 114.238159179687500
356.073791503906250 757.817382812500000 114.184585571289062
356.626647949218750 757.816406250000000 114.203063964843750
358.567291259765625 757.916503906250000 114.136688232421875
359.076324462890625 757.969726562500000 114.118423461914062
359.342346191406250 757.905761718750000 114.034317016601562
360.386047363281250 757.924316406250000 114.110031127929688
360.642486572265625 757.988281250000000 114.218109130859375
360.118652343750000 758.006347656250000 114.221359252929688
344.160675048828125 822.033691406250000 114.011337280273438
344.417846679687500 822.097656250000000 114.119781494140625
344.674987792968750 822.162109375000000 114.228256225585938
344.937835693359375 822.134765625000000 114.199417114257812
346.254699707031250 822.958007812500000 114.000610351562500
348.084747314453125 822.932128906250000 114.045700073242188
341.691040039062500 823.172851562500000 114.139404296875000
347.031738281250000 823.059082031250000 114.188507080078125
347.291107177734375 823.086425781250000 114.242111206054688
347.557647705078125 823.004394531250000 114.130798339843750
347.817016601562500 823.032226562500000 114.184417724609375
348.340545654296875 823.014648437500000 114.181579589843750
348.601074218750000 823.023925781250000 114.207595825195312
348.871307373046875 823.882324218750000 114.014022827148438
349.133117675781250 823.873535156250000 114.012619018554688
349.653106689453125 823.910156250000000 114.092041015625000
343.076538085937500 824.246093750000000 114.083389282226562
349.385192871093750 824.010253906250000 114.230758666992188
342.802795410156250 824.304687500000000 114.001373291015625
350.170562744140625 824.978515625000000 114.226486206054688
347.222808837890625 826.238769531250000 114.207031250000000
347.501953125000000 826.295898437500000 114.143386840820312
353.301147460937500 756.666503906250000 114.296157836914062
353.575683593750000 756.630859375000000 114.349151611328125
354.960693359375000 756.685546875000000 114.322479248046875
355.237670898437500 756.696777343750000 114.317184448242188
356.188781738281250 757.165527343750000 114.273742675781250
356.448059082031250 757.192871093750000 114.326919555664062
353.295227050781250 757.545410156250000 114.441772460937500
353.853973388671875 757.659667968750000 114.314605712890625
354.129760742187500 757.647460937500000 114.338455200195312
354.404327392578125 757.611816406250000 114.391326904296875
354.684936523437500 757.692871093750000 114.298568725585938
354.960754394531250 757.680664062500000 114.322433471679688
355.235321044921875 757.645019531250000 114.375411987304688
355.516052246093750 757.725585937500000 114.282638549804688
355.785614013671875 757.597167968750000 114.452163696289062
356.894927978515625 757.664550781250000 114.401718139648438
357.447662353515625 757.663085937500000 114.420196533203125
357.725952148437500 757.697265625000000 114.385787963867188
358.281311035156250 757.742675781250000 114.346008300781250
358.834136962890625 757.741699218750000 114.364486694335938
358.005523681640625 757.754882812500000 114.322143554687500
357.488891601562500 758.243164062500000 114.457702636718750
357.752044677734375 758.215820312500000 114.428665161132812
359.592041015625000 758.061035156250000 114.279708862304688
359.849914550781250 758.106445312500000 114.360321044921875
355.785705566406250 758.592285156250000 114.452133178710938
356.065185546875000 758.649902343750000 114.388488769531250
356.338500976562500 758.591308593750000 114.470565795898438
344.412109375000000 821.193847656250000 114.256881713867188
344.143585205078125 821.312011718750000 114.422775268554688
345.712585449218750 821.277343750000000 114.442291259765625
345.196105957031250 822.180664062500000 114.280456542968750
345.980102539062500 822.172363281250000 114.303833007812500
346.241821289062500 822.163574218750000 114.302413940429688
346.760559082031250 822.218750000000000 114.409454345703125
347.812255859375000 822.110351562500000 114.294097900390625
345.448547363281250 822.317871093750000 114.498565673828125
346.496490478515625 822.264160156250000 114.465698242187500
341.959686279296875 822.998046875000000 114.367034912109375
348.854431152343750 823.142578125000000 114.398300170898438
350.431091308593750 823.993164062500000 114.252487182617188
343.346099853515625 824.094726562500000 114.281951904296875
349.901428222656250 824.102050781250000 114.392410278320312
350.163208007812500 824.093261718750000 114.391006469726562
346.108489990234375 825.060058593750000 114.403305053710938
346.383178710937500 825.024414062500000 114.456146240234375
350.426177978515625 825.060546875000000 114.362167358398438
350.689208984375000 825.033691406250000 114.333312988281250
348.046875000000000 826.132324218750000 114.365814208984375
353.567352294921875 757.463378906250000 114.552993774414062
357.164367675781250 757.536132812500000 114.571228027343750
353.009979248046875 758.366699218750000 114.650985717773438
354.669189453125000 758.385742187500000 114.677261352539062
354.943664550781250 758.350097656250000 114.730270385742188
355.225585937500000 758.454101562500000 114.608398437500000
355.904693603515625 758.479492187500000 114.741592407226562
356.650421142578125 758.418701171875000 114.661819458007812
356.920440673828125 758.431152343750000 114.643867492675781
357.190490722656250 758.423095703125000 114.626617431640625
357.437652587890625 758.472656250000000 114.653167724609375
357.713378906250000 758.460449218750000 114.677047729492188
358.266113281250000 758.458984375000000 114.695495605468750
358.540527343750000 758.423339843750000 114.748474121093750
355.506256103515625 758.535156250000000 114.515640258789062
355.780853271484375 759.494140625000000 114.568588256835938
356.054107666015625 759.435546875000000 114.650695800781250
357.433959960937500 759.397460937500000 114.740600585937500
358.787445068359375 759.338867187500000 114.668823242187500
359.045227050781250 759.384277343750000 114.749633789062500
359.832153320312500 759.338867187500000 114.717132568359375
360.098083496093750 759.274902343750000 114.633056640625000
360.619140625000000 759.293457031250000 114.684600830078125
360.880981445312500 759.284179687500000 114.682754516601562
344.131042480468750 819.522949218750000 114.724472045898438
344.394958496093750 820.472167968750000 114.668457031250000
344.658935546875000 821.421875000000000 114.612213134765625
344.919433593750000 821.431152343750000 114.638198852539062
345.178771972656250 821.458984375000000 114.691802978515625
345.441589355468750 821.432128906250000 114.662979125976562
345.963775634765625 821.432617187500000 114.687789916992188
346.228973388671875 821.368652343750000 114.604156494140625
346.746429443359375 821.442382812500000 114.738540649414062
347.270996093750000 821.406250000000000 114.708297729492188
345.706726074218750 822.363281250000000 114.579345703125000
347.009277343750000 822.410156250000000 114.709701538085938
347.273376464843750 822.364746093750000 114.653472900390625
347.540954589843750 822.265136718750000 114.515029907226562
348.062011718750000 822.283691406250000 114.567031860351562
348.841125488281250 822.348144531250000 114.699996948242188
349.104064941406250 822.320800781250000 114.671203613281250
349.107696533203125 823.261230468750000 114.588745117187500
349.365753173828125 823.307128906250000 114.669769287109375
343.614532470703125 823.919433593750000 114.509674072265625
343.891357421875000 823.930175781250000 114.504287719726562
344.166076660156250 823.895019531250000 114.557174682617188
344.443969726562500 823.929199218750000 114.522750854492188
344.719787597656250 823.916992187500000 114.546508789062500
344.993408203125000 823.858398437500000 114.628463745117188
345.271301269531250 823.892578125000000 114.594085693359375
350.674438476562500 824.257812500000000 114.662445068359375
346.651275634765625 824.849609375000000 114.683731079101562
346.930297851562500 824.907226562500000 114.620239257812500
347.764343261718750 826.004882812500000 114.516784667968750
353.551788330078125 758.156250000000000 114.931533813476562
354.105651855468750 758.177734375000000 114.920883178710938
353.282104492187500 758.284667968750000 114.762191772460938
353.834777832031250 758.283691406250000 114.780670166015625
354.387390136718750 758.281738281250000 114.799133300781250
356.165191650390625 758.488769531250000 114.767593383789062
356.425689697265625 758.498046875000000 114.793350219726562
357.985290527343750 758.378417968750000 114.788223266601562
355.633789062500000 758.616210937500000 114.935272216796875
356.319854736328125 759.237304687500000 114.907379150390625
357.148193359375000 759.224121093750000 114.949661254882812
358.253417968750000 759.221679687500000 114.986755371093750
355.494018554687500 759.297363281250000 114.806900024414062
357.472961425781250 759.457031250000000 114.786834716796875
357.719635009765625 759.391113281250000 114.832160949707031
357.986663818359375 759.396484375000000 114.759078979492188
358.539367675781250 759.395019531250000 114.777557373046875
359.559417724609375 759.494140625000000 114.938186645507812
360.350402832031250 759.394042968750000 114.823486328125000
356.680908203125000 759.575683593750000 114.928939819335938
356.942687988281250 759.566406250000000 114.927322387695312
357.201812744140625 759.593750000000000 114.980484008789062
359.294891357421875 759.539550781250000 114.994644165039062
355.767303466796875 760.233886718750000 114.888854980468750
356.043029785156250 760.221679687500000 114.912704467773438
360.872741699218750 760.388671875000000 114.847396850585938
344.646301269531250 820.627441406250000 114.913848876953125
344.911376953125000 820.563964843750000 114.830230712890625
345.171875000000000 820.573242187500000 114.856414794921875
345.428894042968750 820.637207031250000 114.964569091796875
345.690490722656250 820.628417968750000 114.963378906250000
345.953308105468750 820.601562500000000 114.934585571289062
346.214904785156250 820.592285156250000 114.933166503906250
346.482421875000000 821.487792968750000 114.794754028320312
347.527923583984375 821.470214843750000 114.816680908203125
347.788391113281250 821.479492187500000 114.842681884765625
341.661254882812500 821.504394531250000 114.983901977539062
347.002197265625000 821.524414062500000 114.874343872070312
348.044067382812500 821.562011718750000 114.978469848632812
349.090759277343750 821.526367187500000 114.972793579101562
348.315338134765625 822.402343750000000 114.757644653320312
348.577026367187500 822.393554687500000 114.756240844726562
349.357299804687500 822.439453125000000 114.861587524414062
342.222045898437500 822.684082031250000 114.769454956054688
342.490539550781250 822.509277343750000 114.996948242187500
342.771484375000000 822.613281250000000 114.875167846679688
343.044097900390625 822.531250000000000 114.986312866210938
349.612915039062500 822.521972656250000 114.997375488281250
349.621398925781250 823.389160156250000 114.805374145507812
349.883117675781250 823.380371093750000 114.803939819335938
350.141143798828125 823.426269531250000 114.884719848632812
350.402832031250000 823.417480468750000 114.883331298828125
350.664550781250000 823.408203125000000 114.881881713867188
345.540527343750000 823.740722656250000 114.792526245117188
350.926269531250000 824.394531250000000 114.880493164062500
352.990966796875000 758.989746093750000 115.116775512695312
353.541046142578125 758.942382812500000 115.193557739257812
353.820343017578125 758.999511718750000 115.129974365234375
354.096038818359375 758.986816406250000 115.153732299804688
354.370483398437500 758.951660156250000 115.206665039062500
354.651000976562500 759.032226562500000 115.113952636718750
354.926635742187500 759.020019531250000 115.137817382812500
355.207214355468750 759.100585937500000 115.045089721679688
356.591857910156250 759.155761718750000 115.018554687500000
356.861206054687500 759.027343750000000 115.187942504882812
352.710632324218750 759.904296875000000 115.209426879882812
355.201171875000000 759.979492187500000 115.190734863281250
356.142913818359375 759.793945312500000 115.233779907226562
356.311279296875000 760.069824218750000 115.111221313476562
356.586914062500000 760.057617187500000 115.134948730468750
357.451690673828125 760.744140625000000 115.225646972656250
358.500061035156250 760.689453125000000 115.191757202148438
360.078979492187500 760.525878906250000 115.017135620117188
360.329895019531250 760.662597656250000 115.234664916992188
360.597137451171875 760.580566406250000 115.123489379882812
345.423065185546875 819.733886718750000 115.101791381835938
344.372131347656250 819.841796875000000 115.216567993164062
344.638275146484375 819.760253906250000 115.105606079101562
344.899841308593750 819.751464843750000 115.104385375976562
345.155700683593750 819.833984375000000 115.240127563476562
346.471893310546875 820.656738281250000 115.041534423828125
346.733520507812500 820.647460937500000 115.040161132812500
346.989196777343750 820.729980468750000 115.175888061523438
347.252014160156250 820.702636718750000 115.147094726562500
347.512512207031250 820.712402343750000 115.173049926757812
347.777679443359375 820.648437500000000 115.089447021484375
348.034545898437500 820.712402343750000 115.197616577148438
348.297363281250000 820.685546875000000 115.168807983398438
348.304565429687500 821.571289062500000 115.004470825195312
348.563781738281250 821.598632812500000 115.057830810546875
348.825469970703125 821.589843750000000 115.056411743164062
349.349975585937500 821.553710937500000 115.026184082031250
349.870910644531250 822.567871093750000 115.078125000000000
350.126464843750000 822.649902343750000 115.213684082031250
345.806518554687500 823.519531250000000 115.078369140625000
347.189453125000000 824.546386718750000 115.080795288085938
358.790588378906250 757.946777343750000 115.354522705078125
353.261840820312500 758.884765625000000 115.257034301757812
353.254699707031250 759.740722656250000 115.431594848632812
353.530334472656250 759.728515625000000 115.455429077148438
354.363281250000000 759.807128906250000 115.381225585937500
354.645019531250000 759.911132812500000 115.259567260742188
354.920654296875000 759.898925781250000 115.283294677734375
355.474365234375000 759.920898437500000 115.272674560546875
355.609069824218750 759.958007812500000 115.456146240234375
355.878570556640625 759.839355468750000 115.290206909179688
356.402038574218750 759.821289062500000 115.286911010742188
356.855041503906250 759.906250000000000 115.333419799804688
357.126922607421875 759.824218750000000 115.444549560546875
357.680694580078125 759.846191406250000 115.433944702148438
357.958801269531250 759.880371093750000 115.399536132812500
359.019561767578125 760.726074218750000 115.270645141601562
359.279968261718750 760.735351562500000 115.296401977539062
359.804931640625000 760.698730468750000 115.265548706054688
355.473236083984375 760.893066406250000 115.301696777343750
355.747650146484375 760.857421875000000 115.354675292968750
356.022033691406250 760.821777343750000 115.407608032226562
356.657196044921875 760.898925781250000 115.422439575195312
356.921569824218750 760.853027343750000 115.365829467773438
358.756439208984375 760.753417968750000 115.299667358398438
359.534973144531250 760.817382812500000 115.431732177734375
345.674224853515625 819.889160156250000 115.347061157226562
345.929992675781250 819.971191406250000 115.482788085937500
346.456634521484375 819.898925781250000 115.397796630859375
346.719390869140625 819.871582031250000 115.369018554687500
348.023803710937500 819.881835937500000 115.444290161132812
348.545776367187500 820.876953125000000 115.469085693359375
341.924621582031250 821.213378906250000 115.356979370117188
349.598297119140625 821.745605468750000 115.326293945312500
349.856262207031250 821.791015625000000 115.407012939453125
343.855285644531250 822.145996093750000 115.494125366210938
343.310302734375000 822.310058593750000 115.271972656250000
343.585998535156250 822.297363281250000 115.295700073242188
350.375823974609375 822.823242187500000 115.486358642578125
346.074554443359375 823.345214843750000 115.305831909179688
350.906494140625000 823.690917968750000 115.319000244140625
347.727478027343750 824.243652343750000 115.477569580078125
347.458496093750000 824.395019531250000 115.279144287109375
352.969543457031250 759.567382812500000 115.640655517578125
353.803558349609375 759.669921875000000 115.537338256835938
357.400024414062500 759.765625000000000 115.526580810546875
358.228027343750000 759.752441406250000 115.568771362304688
358.507507324218750 759.809570312500000 115.505340576171875
355.340850830078125 760.058105468750000 115.594696044921875
352.691650390625000 760.527832031250000 115.675048828125000
354.626800537109375 760.558105468750000 115.695983886718750
355.181640625000000 760.603515625000000 115.656250000000000
356.290191650390625 760.670410156250000 115.605880737304688
356.845123291015625 760.715820312500000 115.566162109375000
357.120727539062500 760.703613281250000 115.589996337890625
357.393798828125000 760.644531250000000 115.671997070312500
357.669372558593750 760.632324218750000 115.695739746093750
357.950012207031250 760.712890625000000 115.603179931640625
358.228149414062500 760.747558593750000 115.568725585937500
356.388916015625000 760.998535156250000 115.561004638671875
357.172668457031250 760.989746093750000 115.583526611328125
355.596008300781250 761.135253906250000 115.730163574218750
352.413787841796875 761.488769531250000 115.709396362304688
354.902496337890625 761.540527343750000 115.719772338867188
355.462249755859375 761.678710937500000 115.563674926757812
355.735351562500000 761.620117187500000 115.645584106445312
344.354980468750000 819.120117187500000 115.627731323242188
346.444915771484375 819.085937500000000 115.671829223632812
346.190368652343750 819.980468750000000 115.508743286132812
347.756225585937500 819.981933593750000 115.582824707031250
346.965637207031250 820.099609375000000 115.723953247070312
347.491119384765625 820.045410156250000 115.666397094726562
342.187927246093750 820.922851562500000 115.729782104492188
348.802551269531250 820.940917968750000 115.577194213867188
350.109313964843750 821.909667968750000 115.597473144531250
350.364776611328125 821.992187500000000 115.732971191406250
344.126708984375000 822.041015625000000 115.634216308593750
344.401275634765625 822.005371093750000 115.687133789062500
344.681152343750000 822.085937500000000 115.594467163085938
344.954620361328125 822.027832031250000 115.676361083984375
350.636230468750000 822.832519531250000 115.512329101562500
350.892883300781250 822.896484375000000 115.620437622070312
351.152038574218750 822.923828125000000 115.673767089843750
346.340393066406250 823.124023437500000 115.591522216796875
346.614929199218750 823.088378906250000 115.644317626953125
354.070678710937500 759.494628906250000 115.764831542968750
352.960113525390625 760.376464843750000 115.873306274414062
353.234436035156250 760.341308593750000 115.926208496093750
353.517211914062500 760.468261718750000 115.775390625000000
354.063537597656250 760.350585937500000 115.939315795898438
354.343933105468750 760.431152343750000 115.846817016601562
354.898712158203125 760.476074218750000 115.807098388671875
356.559509277343750 760.541992187500000 115.775192260742188
356.114105224609375 761.189941406250000 115.836624145507812
352.957794189453125 761.325195312500000 115.931427001953125
353.238128662109375 761.405761718750000 115.838943481445312
354.623260498046875 761.483398437500000 115.783187866210938
355.171936035156250 761.412597656250000 115.888931274414062
355.325256347656250 761.271972656250000 115.923629760742188
355.845947265625000 761.290039062500000 115.975128173828125
356.003479003906250 761.468750000000000 115.843963623046875
356.280334472656250 761.479492187500000 115.838668823242188
357.104492187500000 761.396484375000000 115.968246459960938
357.660614013671875 761.464843750000000 115.899444580078125
356.558380126953125 761.513671875000000 115.804229736328125
357.390106201171875 761.569824218750000 115.759262084960938
358.470520019531250 762.085449218750000 115.794647216796875
358.722808837890625 762.204101562500000 115.984848022460938
359.510528564453125 762.140625000000000 115.925003051757812
359.774963378906250 762.095214843750000 115.868652343750000
360.040771484375000 762.031250000000000 115.784667968750000
360.298370361328125 762.076660156250000 115.865173339843750
360.561462402343750 762.049316406250000 115.836196899414062
355.451293945312500 762.464843750000000 115.825454711914062
344.868835449218750 819.248046875000000 115.844085693359375
346.176361083984375 819.204101562500000 115.837463378906250
347.216552734375000 819.259765625000000 115.969100952148438
347.220092773437500 820.200195312500000 115.886795043945312
348.268585205078125 820.127929687500000 115.826629638671875
348.524139404296875 820.210449218750000 115.962051391601562
348.794097900390625 820.073730468750000 115.769027709960938
349.047241210937500 820.192382812500000 115.959228515625000
342.462493896484375 820.887695312500000 115.782699584960938
349.049621582031250 821.150878906250000 115.904495239257812
349.572692871093750 821.132812500000000 115.901657104492188
349.831848144531250 821.160156250000000 115.954971313476562
345.225952148437500 821.922363281250000 115.816543579101562
345.501525878906250 821.910156250000000 115.840255737304688
350.623901367187500 822.019531250000000 115.786315917968750
347.987426757812500 823.906738281250000 115.908508300781250
353.784332275390625 760.293457031250000 116.002822875976562
352.677490234375000 761.244628906250000 116.024063110351562
353.505249023437500 761.230957031250000 116.066329956054688
354.053924560546875 761.159667968750000 116.172012329101562
354.331878662109375 761.193847656250000 116.137588500976562
358.200256347656250 761.231445312500000 116.208679199218750
353.783233642578125 761.265136718750000 116.031860351562500
355.055877685546875 761.390136718750000 116.089477539062500
356.825195312500000 761.339355468750000 116.031646728515625
357.926025390625000 761.267089843750000 116.155914306640625
353.222656250000000 762.099121093750000 116.216949462890625
353.502960205078125 762.179687500000000 116.124435424804688
353.777282714843750 762.144531250000000 116.177230834960938
354.052825927734375 762.131835937500000 116.201034545898438
355.157287597656250 762.129394531250000 116.237945556640625
355.714508056640625 762.220703125000000 116.140075683593750
355.991210937500000 762.231933593750000 116.134719848632812
356.263000488281250 762.149902343750000 116.245773315429688
356.541015625000000 762.184082031250000 116.211425781250000
356.619018554687500 762.422363281250000 116.217010498046875
356.851074218750000 762.338867187500000 116.167091369628906
357.122253417968750 762.312500000000000 116.122634887695312
357.375091552734375 762.286621093750000 116.108200073242188
358.977752685546875 762.286132812500000 116.120056152343750
359.240722656250000 762.258789062500000 116.091079711914062
352.123016357421875 763.189453125000000 116.063659667968750
355.437835693359375 763.204589843750000 116.145294189453125
345.117645263671875 818.444335937500000 116.144134521484375
344.598144531250000 819.402832031250000 116.064682006835938
345.114166259765625 819.494140625000000 116.226257324218750
345.381408691406250 819.394042968750000 116.087982177734375
345.641723632812500 819.403808593750000 116.113967895507812
345.907867431640625 819.321777343750000 116.003112792968750
346.686462402343750 819.386718750000000 116.136123657226562
346.949127197265625 819.359375000000000 116.107330322265625
347.469726562500000 819.377929687500000 116.159454345703125
347.727661132812500 819.423828125000000 116.240142822265625
347.993927001953125 819.342285156250000 116.129287719726562
349.037536621093750 819.342773437500000 116.178375244140625
349.296630859375000 820.365722656250000 116.231674194335938
342.727691650390625 820.643554687500000 116.097183227539062
343.278778076171875 820.619140625000000 116.144744873046875
343.554351806640625 820.606933593750000 116.168441772460938
349.302703857421875 821.269042968750000 116.094848632812500
350.083618164062500 821.297363281250000 116.172714233398438
350.343933105468750 821.306640625000000 116.198669433593750
350.606689453125000 821.279296875000000 116.169906616210938
350.868164062500000 821.270507812500000 116.168289184570312
345.764068603515625 821.619628906250000 116.213012695312500
346.039611816406250 821.607421875000000 116.236709594726562
350.874389648437500 822.174316406250000 116.031448364257812
351.137145996093750 822.147460937500000 116.002685546875000
346.870666503906250 822.658691406250000 116.191604614257812
352.386596679687500 761.950195312500000 116.378280639648438
352.938781738281250 761.949218750000000 116.396728515625000
354.873199462890625 761.979003906250000 116.417724609375000
352.666839599609375 762.030761718750000 116.285705566406250
354.322265625000000 762.003417968750000 116.370132446289062
354.598937988281250 762.014648437500000 116.364852905273438
357.641754150390625 762.111816406250000 116.335556030273438
355.298034667968750 762.649414062500000 116.498718261718750
355.564788818359375 762.567382812500000 116.387664794921875
355.823730468750000 762.594726562500000 116.440750122070312
356.087951660156250 762.549316406250000 116.384399414062500
356.349548339843750 762.540527343750000 116.382797241210938
354.597839355468750 762.986328125000000 116.393875122070312
354.870880126953125 762.927734375000000 116.475845336914062
356.254394531250000 762.982421875000000 116.449234008789062
357.358795166015625 762.979980468750000 116.486236572265625
355.151245117187500 763.008300781250000 116.383270263671875
355.703491210937500 763.006835937500000 116.401718139648438
355.985107421875000 763.110351562500000 116.280181884765625
356.533599853515625 763.039550781250000 116.385833740234375
356.812866210937500 763.097167968750000 116.322341918945312
356.873992919921875 763.499023437500000 116.352401733398438
358.186065673828125 763.398925781250000 116.261993408203125
358.964202880859375 763.462890625000000 116.394149780273438
359.228576660156250 763.417480468750000 116.337585449218750
359.486145019531250 763.462890625000000 116.418029785156250
359.750488281250000 763.417480468750000 116.361679077148438
360.013488769531250 763.390136718750000 116.332687377929688
360.276489257812500 763.362792968750000 116.303527832031250
356.607177734375000 763.580566406250000 116.463470458984375
358.438354492187500 763.517578125000000 116.452102661132812
354.596710205078125 763.958007812500000 116.422912597656250
355.151336669921875 764.003417968750000 116.383224487304688
357.915130615234375 764.530761718750000 116.455352783203125
347.463806152343750 818.474121093750000 116.296279907226562
344.586730957031250 818.589355468750000 116.338485717773438
344.850433349609375 818.544433593750000 116.282363891601562
345.368682861328125 818.599609375000000 116.389190673828125
345.625488281250000 818.663574218750000 116.497406005859375
345.886901855468750 818.654296875000000 116.496002197265625
346.148345947265625 818.645507812500000 116.494567871093750
346.409729003906250 818.636718750000000 116.493377685546875
346.675903320312500 818.555175781250000 116.382568359375000
346.934967041015625 818.582519531250000 116.435867309570312
347.196441650390625 818.573730468750000 116.434448242187500
347.719329833984375 818.556152343750000 116.431854248046875
347.979614257812500 818.565429687500000 116.457809448242188
348.249450683593750 819.424316406250000 116.264709472656250
348.770019531250000 819.442871093750000 116.316787719726562
348.503753662109375 819.524414062500000 116.427627563476562
349.285736083984375 819.534179687500000 116.478118896484375
342.996948242187500 820.492187500000000 116.295455932617188
344.101135253906250 820.489257812500000 116.332229614257812
344.373474121093750 820.407226562500000 116.443130493164062
344.650054931640625 820.418457031250000 116.437911987304688
349.552062988281250 820.447753906250000 116.367279052734375
349.812347412109375 820.457031250000000 116.393218994140625
350.075042724609375 820.430175781250000 116.364456176757812
350.335327148437500 820.439453125000000 116.390411376953125
350.600524902343750 820.375488281250000 116.306701660156250
350.855895996093750 820.458007812500000 116.442108154296875
343.827758789062500 820.547851562500000 116.250274658203125
351.118591308593750 821.425292968750000 116.413314819335938
346.311828613281250 821.525878906250000 116.347717285156250
347.140686035156250 822.530273437500000 116.360794067382812
348.519409179687500 823.487792968750000 116.450408935546875
348.250640869140625 823.639160156250000 116.252151489257812
357.910888671875000 761.984375000000000 116.504745483398438
352.376037597656250 762.736816406250000 116.639831542968750
352.652679443359375 762.748046875000000 116.634582519531250
353.203582763671875 762.723632812500000 116.682067871093750
354.771026611328125 762.721679687500000 116.584014892578125
355.032592773437500 762.712890625000000 116.582412719726562
352.930541992187500 762.782226562500000 116.600143432617188
353.481445312500000 762.757812500000000 116.647644042968750
353.760467529296875 762.814941406250000 116.584259033203125
354.037170410156250 762.825683593750000 116.578903198242188
354.315032958984375 762.859863281250000 116.544601440429688
357.078277587890625 762.899902343750000 116.578689575195312
357.634216308593750 762.968261718750000 116.509948730468750
357.910980224609375 762.979003906250000 116.504699707031250
352.372589111328125 763.662597656250000 116.726959228515625
356.074859619140625 763.726074218750000 116.658203125000000
358.694519042968750 763.581054687500000 116.559921264648438
354.503112792968750 763.816406250000000 116.722412109375000
354.867309570312500 763.853515625000000 116.563003540039062
355.416992187500000 763.806152343750000 116.639587402343750
355.549194335937500 763.780273437500000 116.716125488281250
356.332489013671875 763.771484375000000 116.738830566406250
356.855560302734375 764.748535156250000 116.735595703125000
355.142822265625000 764.836425781250000 116.586654663085938
344.838928222656250 817.730957031250000 116.556091308593750
345.101501464843750 817.704101562500000 116.527343750000000
345.884582519531250 817.695800781250000 116.550704956054688
347.971252441406250 817.697753906250000 116.649475097656250
345.617370605468750 817.795410156250000 116.688858032226562
346.141357421875000 817.759765625000000 116.658905029296875
346.660644531250000 817.796386718750000 116.738327026367188
348.238677978515625 818.592773437500000 116.511108398437500
348.500122070312500 818.583984375000000 116.509689331054688
348.755554199218750 818.666015625000000 116.645248413085938
349.284545898437500 818.557128906250000 116.505462646484375
341.879333496093750 819.198730468750000 116.636550903320312
349.543579101562500 819.580078125000000 116.558761596679688
349.806243896484375 819.552734375000000 116.529998779296875
350.064056396484375 819.598632812500000 116.610626220703125
350.319396972656250 819.680664062500000 116.746215820312500
344.918029785156250 820.244628906250000 116.664978027343750
345.746612548828125 820.254394531250000 116.678085327148438
351.109954833984375 820.558105468750000 116.604995727539062
351.372680664062500 820.530761718750000 116.576049804687500
346.581848144531250 821.397949218750000 116.516754150390625
346.856262207031250 821.362792968750000 116.569641113281250
347.411743164062500 822.425781250000000 116.500732421875000
352.090026855468750 763.535644531250000 116.877609252929688
352.645629882812500 763.604003906250000 116.808898925781250
353.469512939453125 763.520996093750000 116.938262939453125
353.746154785156250 763.531738281250000 116.932907104492188
354.305419921875000 763.669433593750000 116.777038574218750
355.688751220703125 763.724121093750000 116.750564575195312
355.959197998046875 763.619140625000000 116.890457153320312
356.234619140625000 763.606933593750000 116.914260864257812
356.510009765625000 763.594726562500000 116.938079833984375
357.060791015625000 763.570312500000000 116.985580444335938
357.342498779296875 763.674316406250000 116.863983154296875
354.759460449218750 763.880371093750000 116.830368041992188
355.017089843750000 763.925781250000000 116.910781860351562
355.282440185546875 763.862304687500000 116.827133178710938
355.804199218750000 763.862304687500000 116.851455688476562
354.297058105468750 764.501953125000000 116.980377197265625
354.850280761718750 764.523925781250000 116.969757080078125
355.410919189453125 764.685058593750000 116.784820556640625
355.680175781250000 764.556640625000000 116.953903198242188
355.797668457031250 764.948730468750000 116.988174438476562
356.065704345703125 764.848632812500000 116.849853515625000
356.323272705078125 764.894042968750000 116.930480957031250
356.591369628906250 764.793945312500000 116.791900634765625
358.159301757812500 764.758300781250000 116.809753417968750
358.416870117187500 764.803710937500000 116.890167236328125
358.679718017578125 764.776367187500000 116.861190795898438
359.201507568359375 764.776855468750000 116.885299682617188
359.461730957031250 764.785644531250000 116.910812377929688
359.720581054687500 764.812988281250000 116.964111328125000
359.980743408203125 764.822265625000000 116.989608764648438
354.850402832031250 765.519042968750000 116.969726562500000
345.348999023437500 816.918457031250000 116.854553222656250
346.392211914062500 816.919433593750000 116.903808593750000
346.659454345703125 816.819824218750000 116.765701293945312
345.083068847656250 817.000000000000000 116.965301513671875
344.568420410156250 817.885253906250000 116.776321411132812
345.352539062500000 817.858886718750000 116.772293090820312
346.396850585937500 817.841796875000000 116.794448852539062
346.918518066406250 817.842285156250000 116.818954467773438
347.179901123046875 817.833496093750000 116.817764282226562
347.438934326171875 817.860839843750000 116.871063232421875
347.696746826171875 817.906738281250000 116.951690673828125
348.223114013671875 817.834472656250000 116.866836547851562
348.488128662109375 817.770996093750000 116.783386230468750
348.747131347656250 817.798339843750000 116.836685180664062
349.010955810546875 818.748046875000000 116.780578613281250
349.532592773437500 818.748535156250000 116.805130004882812
342.973937988281250 818.987792968750000 116.934768676757812
349.792846679687500 818.757812500000000 116.831054687500000
350.046905517578125 818.858398437500000 116.993927001953125
342.148620605468750 819.047363281250000 116.834533691406250
350.578369140625000 819.708007812500000 116.799499511718750
350.841064453125000 819.681152343750000 116.770736694335938
345.190277099609375 820.162597656250000 116.775970458984375
345.464660644531250 820.127441406250000 116.828720092773438
346.018859863281250 820.172363281250000 116.789062500000000
347.121765136718750 821.142089843750000 116.854827880859375
347.393859863281250 821.060546875000000 116.965805053710938
347.678283691406250 822.228515625000000 116.757034301757812
347.954895019531250 822.239257812500000 116.751678466796875
348.222473144531250 822.064941406250000 116.978836059570312
348.501281738281250 822.122558593750000 116.915359497070312
352.912719726562500 763.429687500000000 117.036041259765625
353.185729980468750 763.371093750000000 117.117843627929688
354.016723632812500 763.426757812500000 117.072921752929688
356.780426025390625 763.489746093750000 117.077972412109375
357.612854003906250 763.569335937500000 117.003997802734375
352.077148437500000 764.275390625000000 117.197097778320312
353.740203857421875 764.411132812500000 117.078125000000000
354.016815185546875 764.421386718750000 117.072891235351562
354.567565917968750 764.396972656250000 117.120391845703125
355.949371337890625 764.428710937500000 117.122955322265625
356.775512695312500 764.392089843750000 117.194229125976562
357.053405761718750 764.426269531250000 117.159835815429688
357.604125976562500 764.401855468750000 117.207321166992188
358.931884765625000 764.895019531250000 117.050979614257812
355.008056640625000 765.048339843750000 117.102401733398438
355.266906738281250 765.075683593750000 117.155685424804688
355.529693603515625 765.048339843750000 117.126708984375000
351.801849365234375 765.282714843750000 117.173385620117188
354.287414550781250 765.311523437500000 117.212738037109375
354.562774658203125 765.299316406250000 117.236526489257812
355.124572753906250 765.483398437500000 117.022567749023438
355.401184082031250 765.494628906250000 117.017227172851562
356.497772216796875 765.353027343750000 117.228500366210938
357.360076904296875 765.980468750000000 117.115600585937500
357.626922607421875 765.898925781250000 117.004379272460938
354.841918945312500 766.352050781250000 117.173141479492188
344.550048828125000 816.186523437500000 117.213912963867188
346.384033203125000 816.052246093750000 117.095397949218750
344.551239013671875 817.163085937500000 117.186584472656250
344.819427490234375 817.045410156250000 117.021163940429688
345.602325439453125 817.037109375000000 117.044738769531250
345.863647460937500 817.028320312500000 117.043304443359375
347.424682617187500 817.083984375000000 117.199340820312500
348.208770751953125 817.057617187500000 117.195343017578125
348.990447998046875 818.062500000000000 117.245788574218750
342.418914794921875 818.919433593750000 117.003601074218750
342.691192626953125 818.837890625000000 117.114456176757812
343.242004394531250 818.813476562500000 117.161895751953125
343.523742675781250 818.939941406250000 117.011322021484375
343.792816162109375 818.788574218750000 117.209289550781250
344.069305419921875 818.799316406250000 117.204025268554688
344.897583007812500 818.809082031250000 117.217117309570312
345.174041748046875 818.820312500000000 117.211730957031250
350.299774169921875 818.976562500000000 117.183883666992188
346.278961181640625 819.835937500000000 117.219436645507812
351.090118408203125 819.854003906250000 117.042755126953125
351.346618652343750 819.917968750000000 117.150909423828125
351.609252929687500 819.890625000000000 117.121948242187500
347.660400390625000 820.862792968750000 117.221847534179688
357.871765136718750 763.255859375000000 117.405426025390625
352.350158691406250 764.216796875000000 117.278991699218750
352.623168945312500 764.158691406250000 117.360855102539062
352.896118164062500 764.100097656250000 117.442596435546875
353.172637939453125 764.110839843750000 117.437393188476562
356.486450195312500 764.149414062500000 117.489898681640625
353.456420898437500 764.260742187500000 117.257781982421875
356.216064453125000 764.254394531250000 117.350067138671875
357.322448730468750 764.298339843750000 117.328857421875000
352.066650390625000 765.062011718750000 117.458541870117188
352.341979980468750 765.049804687500000 117.482192993164062
352.624450683593750 765.176757812500000 117.331649780273438
353.170349121093750 765.059570312500000 117.495391845703125
354.213378906250000 765.220703125000000 117.325942993164062
354.474853515625000 765.211914062500000 117.324340820312500
355.937103271484375 765.191894531250000 117.413360595703125
356.212432861328125 765.179687500000000 117.437149047851562
356.763061523437500 765.155273437500000 117.484603881835938
354.008422851562500 765.254394531250000 117.276168823242188
354.731109619140625 765.275390625000000 117.432250976562500
355.666717529296875 765.296875000000000 117.273376464843750
351.516052246093750 766.081542968750000 117.411041259765625
354.557983398437500 766.201660156250000 117.352661132812500
355.382843017578125 766.142089843750000 117.452972412109375
356.299682617187500 766.216796875000000 117.422973632812500
357.873748779296875 766.089843750000000 117.303939819335938
358.132568359375000 766.117187500000000 117.356994628906250
358.387390136718750 766.199218750000000 117.492019653320312
358.650177001953125 766.171875000000000 117.463073730468750
345.589538574218750 816.242187500000000 117.345611572265625
344.804504394531250 816.287109375000000 117.376693725585938
345.327087402343750 816.269042968750000 117.374099731445312
346.106323242187500 816.315429687500000 117.479629516601562
346.115661621093750 817.164550781250000 117.260818481445312
346.892578125000000 817.247070312500000 117.420776367187500
347.682495117187500 817.129882812500000 117.280136108398438
348.458129882812500 817.230468750000000 117.467422485351562
348.721862792968750 817.185058593750000 117.411148071289062
347.152709960937500 817.256835937500000 117.446899414062500
349.249389648437500 818.089843750000000 117.299026489257812
349.505920410156250 818.153808593750000 117.406951904296875
349.766021728515625 818.163085937500000 117.433074951171875
350.024902343750000 818.190429687500000 117.486343383789062
351.070373535156250 818.154785156250000 117.480514526367188
344.338317871093750 818.648437500000000 117.401947021484375
344.616882324218750 818.705566406250000 117.338516235351562
345.440795898437500 818.622558593750000 117.467849731445312
350.550109863281250 819.131347656250000 117.428680419921875
350.816406250000000 819.049804687500000 117.317947387695312
346.549957275390625 819.730957031250000 117.359375000000000
347.100708007812500 819.706542968750000 117.406845092773438
346.827575683593750 819.765136718750000 117.324966430664062
352.892608642578125 765.025390625000000 117.529693603515625
353.443298339843750 765.001464843750000 117.577148437500000
353.722229003906250 765.058593750000000 117.513839721679688
357.038391113281250 765.143066406250000 117.508422851562500
357.313720703125000 765.130859375000000 117.532089233398438
351.779663085937500 765.837890625000000 117.725036621093750
353.715087890625000 765.914550781250000 117.688003540039062
355.650756835937500 765.990722656250000 117.650955200195312
355.926055908203125 765.978515625000000 117.674621582031250
356.476654052734375 765.954101562500000 117.722183227539062
353.996429443359375 766.017578125000000 117.566513061523438
354.272979736328125 766.028808593750000 117.561248779296875
355.101348876953125 766.038574218750000 117.574447631835938
359.690673828125000 766.208496093750000 117.565933227539062
353.934082031250000 766.479492187500000 117.710342407226562
355.502380371093750 766.425781250000000 117.701080322265625
356.033020019531250 766.298339843750000 117.533920288085938
356.557189941406250 766.262207031250000 117.503341674804688
358.898162841796875 766.344726562500000 117.734939575195312
359.159637451171875 766.335449218750000 117.733306884765625
354.550811767578125 767.057617187500000 117.526840209960938
357.334899902343750 767.321289062500000 117.635360717773438
